	0.57949108 -0.25693369 1.277
	0.57949108 -0.27472994 1.277
	0.57949108 -0.28362808 1.277
	0.57949108 -0.29252622 1.277
	0.57949108 -0.30142435 1.277
	0.57949108 0.39263025 1.277
	0.57949108 0.41042653 1.277
	0.57952946 -0.15250775 1.2970001
	0.57952946 -0.36940768 1.2970001
	0.57952946 0.44396701 1.2970001
	0.57952946 0.45300457 1.2970001
	0.57952946 0.46204203 1.2970001
	0.57952946 0.4710795 1.2970001
	0.57970893 0.83646578 2.303
	0.57980824 0.79879159 2.8570001
	0.57998151 0.08748325 1.24
	0.57998151 0.096123569 1.24
	0.57998151 0.17388645 1.24
	0.58009559 -0.025221547 1.2589999
	0.58009559 -0.033994261 1.2589999
	0.58009559 -0.051539682 1.2589999
	0.58009559 -0.060312394 1.2589999
	0.58009559 -0.069085106 1.2589999
	0.58009559 -0.077857815 1.2589999
	0.58009559 -0.095403247 1.2589999
	0.58009559 -0.27085748 1.2589999
	0.58009559 0.0098693008 1.2589999
	0.58009559 0.018642014 1.2589999
	0.58009559 0.10636913 1.2589999
	0.58009559 0.12391456 1.2589999
	0.58009559 0.3783232 1.2589999
	0.58009559 0.43973219 1.2589999
	0.58040398 0.81160223 2.7650001
	0.58055204 0.18854626 1.223
	0.58072191 0.85489881 2.1860001
	0.58101887 0.82369339 2.6789999
	0.58104849 0.48900118 1.321
	0.58131677 -0.3796123 1.301
	0.58131677 -0.38867769 1.301
	0.58131677 0.48159769 1.301
	0.58176011 -0.16860992 1.2819999
	0.58176011 -0.20434183 1.2819999
	0.58176011 -0.21327481 1.2819999
	0.58176011 -0.26687264 1.2819999
	0.58176011 -0.31153753 1.2819999
	0.58176011 -0.32047051 1.2819999
	0.58176011 -0.32940349 1.2819999
	0.58176011 -0.33833647 1.2819999
	0.58176011 -0.34726945 1.2819999
	0.58176011 0.42096648 1.2819999
	0.58176011 0.42989948 1.2819999
	0.58176011 0.43883246 1.2819999
	0.58176011 0.44776541 1.2819999
	0.58176011 0.45669839 1.2819999
	0.58176011 0.4656314 1.2819999
	0.58176011 0.47456434 1.2819999
	0.58193868 -0.04290285 1.263
	0.58193868 -0.08690577 1.263
	0.58193868 -0.10450694 1.263
	0.58193868 -0.11330753 1.263
	0.58193868 -0.12210812 1.263
	0.58193868 -0.1309087 1.263
	0.58193868 -0.13970928 1.263
	0.58193868 -0.14850987 1.263
	0.58193868 -0.15731046 1.263
	0.58193868 -0.16611104 1.263
	0.58193868 -0.17491162 1.263
	0.58193868 -0.18371221 1.263
	0.58193868 -0.1925128 1.263
	0.58193868 -0.24531631 1.263
	0.58193868 -0.26291746 1.263
	0.58193868 -0.28051862 1.263
	0.58193868 0.18591236 1.263
	0.58193868 0.26511762 1.263
	0.58193868 0.36192405 1.263
	0.58193868 0.37072465 1.263
	0.58193868 0.40592697 1.263
	0.58193868 0.44992989 1.263
	0.58211547 0.81056839 2.5220001
	0.58211547 0.82814163 2.5220001
	0.58228618 0.81404191 3.326
	0.58232015 0.018434716 1.245
	0.58232015 0.10518632 1.245
	0.58232015 0.11386149 1.245
	0.58232015 0.12253664 1.245
	0.58232015 0.1312118 1.245
	0.58232015 0.15723728 1.245
	0.58232015 0.16591245 1.245
	0.58232015 0.19193794 1.245
	0.58232015 0.20061308 1.245
	0.58232015 0.20928825 1.245
	0.58232015 0.27001438 1.245
	0.58232015 0.33074051 1.245
	0.58232015 0.33941564 1.245
	0.58232015 0.35676599 1.245
	0.58243513 -0.88002974 4.881
	0.58243513 -1.2201378 4.881
	0.58243513 -1.6962892 4.881
	0.58245081 0.19771266 1.227
	0.58245081 0.21481213 1.227
	0.58245081 0.30030948 1.227
	0.58256841 0.82157081 2.45
	0.58281225 0.29614875 1.21
	0.5829969 0.8319636 2.382
	0.58335662 -0.57531029 4.619
	0.58335662 -0.60749555 4.619
	0.58335662 -1.0580883 4.619
	0.58335662 -1.1224586 4.619
	0.58355087 -0.40837187 1.306
	0.58355087 0.49254876 1.306
	0.58355087 0.50164896 1.306
	0.58355087 0.51074916 1.306
	0.58402902 -0.35759166 1.2869999
	0.58402902 -0.38449511 1.2869999
	0.58402902 -0.39346293 1.2869999
	0.58402902 -0.40243077 1.2869999
	0.58402902 -0.41139856 1.2869999
	0.58402902 -0.42036638 1.2869999
	0.58402902 0.40467268 1.2869999
	0.58419102 -0.0076151537 1.249
	0.58419102 -0.033724248 1.249
	0.58419102 -0.042427283 1.249
	0.58419102 -0.085942447 1.249
	0.58419102 -0.12075457 1.249
	0.58419102 0.0010878791 1.249
	0.58419102 0.0097909113 1.249
	0.58419102 0.027196975 1.249
	0.58419102 0.079415165 1.249
	0.58419102 0.14033639 1.249
	0.58419102 0.14903942 1.249
	0.58419102 0.18385155 1.249
	0.58419102 0.34920916 1.249
	0.58419102 0.36661524 1.249
	0.584225 -0.1489201 4.3839998
	0.584225 -0.24056323 4.3839998
	0.584225 -0.27111095 4.3839998
	0.584225 -0.30165866 4.3839998
	0.584225 -0.33220637 4.3839998
	0.584225 -0.36275408 4.3839998
	0.584225 -0.39330178 4.3839998
	0.584225 -0.42384952 4.3839998
	0.584225 -0.66823119 4.3839998
	0.584225 -0.97370833 4.3839998
	0.584225 -1.004256 4.3839998
	0.584225 -1.1875423 4.3839998
	0.584225 -1.2791854 4.3839998
	0.584225 -1.4930195 4.3839998
	0.584225 -1.5235672 4.3839998
	0.584225 0.003818464 4.3839998
	0.584225 0.034366176 4.3839998
	0.584225 0.12600932 4.3839998
	0.584225 0.18710475 4.3839998
	0.584225 0.24820016 4.3839998
	0.584225 0.27874789 4.3839998
	0.584225 0.30929559 4.3839998
	0.58424246 -0.20211034 1.268
	0.58424246 -0.22861663 1.268
	0.58424246 -0.23745203 1.268
	0.58424246 -0.25512287 1.268
	0.58424246 -0.29046458 1.268
	0.58424246 -0.29929999 1.268
	0.58424246 -0.30813542 1.268
	0.58424246 -0.31697085 1.268
	0.58424246 -0.37881884 1.268
	0.58424246 -0.38765424 1.268
	0.58424246 0.41636938 1.268
	0.58424246 0.43404025 1.268
	0.58473891 0.1786996 1.214
	0.58473891 0.28866857 1.214
	0.58473891 0.34788266 1.214
	0.58482426 0.086918838 1.232
	0.58482426 0.09550342 1.232
	0.58482426 0.15559545 1.232
	0.58482426 0.20710291 1.232
	0.58482426 0.34445611 1.232
	0.58482426 0.36162528 1.232
	0.58504379 -0.11264818 4.1719999
	0.58504379 -1.275468 4.1719999
	0.58504379 0.0036338121 4.1719999
	0.58504379 0.58504379 4.1719999
	0.58578497 -0.45561054 1.311
	0.58629805 -0.36798361 1.2920001
	0.58629805 -0.37698624 1.2920001
	0.58629805 0.50527412 1.2920001
	0.58652967 -0.01638351 1.2539999
	0.58652967 -0.025121383 1.2539999
	0.58652967 -0.051335 1.2539999
	0.58652967 -0.060072869 1.2539999
	0.58652967 -0.068810746 1.2539999
	0.58652967 -0.077548616 1.2539999
	0.58652967 -0.095024355 1.2539999
	0.58652967 -0.10376223 1.2539999
	0.58652967 -0.1125001 1.2539999
	0.58652967 -0.12997586 1.2539999
	0.58652967 -0.14745159 1.2539999
	0.58652967 -0.15618946 1.2539999
	0.58652967 -0.16492733 1.2539999
	0.58652967 -0.19114096 1.2539999
	0.58652967 -0.19987883 1.2539999
	0.58652967 -0.2086167 1.2539999
	0.58652967 -0.26104394 1.2539999
	0.58652967 -0.2697818 1.2539999
	0.58654624 -0.21177757 1.273
	0.58654624 -0.22064783 1.273
	0.58654624 -0.33596125 1.273
	0.58654624 -0.34483156 1.273
	0.58654624 -0.36257207 1.273
	0.58654624 -0.37144232 1.273
	0.58654624 -0.39805311 1.273
	0.58666557 -0.058348298 1.2180001
	0.58666557 0.08593113 1.2180001
	0.58666557 0.17080137 1.2180001
	0.58666557 0.18777543 1.2180001
	0.58666557 0.2132365 1.2180001
	0.58666557 0.22172353 1.2180001
	0.58666557 0.23021054 1.2180001
	0.58666557 0.34054187 1.2180001
	0.58666557 0.3575159 1.2180001
	0.58672303 -0.0075358921 1.2359999
	0.58672303 -0.01614834 1.2359999
	0.58672303 -0.033373237 1.2359999
	0.58672303 -0.041985687 1.2359999
	0.58672303 -0.050598133 1.2359999
	0.58672303 -0.05921058 1.2359999
	0.58672303 -0.08504793 1.2359999
	0.58672303 -0.093660377 1.2359999
	0.58672303 0.001076556 1.2359999
	0.58672303 0.0096890042 1.2359999
	0.58672303 0.018301452 1.2359999
	0.58672303 0.07858859 1.2359999
	0.58672303 0.10442593 1.2359999
	0.58672303 0.11303838 1.2359999
	0.58672303 0.12165084 1.2359999
	0.58672303 0.13026328 1.2359999
	0.58672303 0.13887572 1.2359999
	0.58672303 0.14748816 1.2359999
	0.58672303 0.2766749 1.2359999
	0.58672303 0.32834959 1.2359999
	0.58672303 0.35418692 1.2359999
	0.58684587 0.235366 1.201
	0.58718467 -0.47822258 6.9499998
	0.58718467 -0.52665013 6.9499998
	0.58718467 -0.62350535 6.9499998
	0.58718467 -1.0109262 6.9499998
	0.58718467 -1.5436299 6.9499998
	0.58718467 -1.7373402 6.9499998
	0.58718467 -1.7857679 6.9499998
	0.58718467 -1.8341954 6.9499998
	0.58736932 0.14775819 1.402
	0.58801907 -0.31979987 1.316
	0.58814716 -1.8764695 6.4310002
	0.58814716 0.050412614 6.4310002
	0.58814716 0.22965747 6.4310002
	0.58814716 0.31927988 6.4310002
	0.58816022 0.85042185 2.214
	0.58838922 -0.32811877 1.277
	0.58838922 -0.35481319 1.277
	0.58838922 -0.40820202 1.277
	0.58856696 -0.43267015 1.2970001
	0.58856696 -0.44170767 1.2970001
	0.58856696 -0.45074514 1.2970001
	0.58856696 0.49819204 1.2970001
	0.58862185 -0.024840921 1.24
	0.58862185 -0.068042524 1.24
	0.58862185 -0.076682843 1.24
	0.58862185 -0.10260381 1.24
	0.58862185 -0.11124413 1.24
	0.58862185 -0.1458054 1.24
	0.58862185 -0.15444574 1.24
	0.58862185 0.16524613 1.24
	0.58862185 0.26892999 1.24
	0.58862185 0.33805254 1.24
	0.58886826 -0.1392668 1.2589999
	0.58886826 -0.17435765 1.2589999
	0.58886826 -0.18313037 1.2589999
	0.58886826 -0.21822122 1.2589999
	0.58886826 -0.25331205 1.2589999
	0.58886826 -0.27963018 1.2589999
	0.58886826 -0.28840292 1.2589999
	0.58886826 0.3783232 1.2589999
	0.5890739 -0.024500363 1.223
	0.5890739 -0.033022229 1.223
	0.5890739 -0.041544091 1.223
	0.5890739 -0.050065957 1.223
	0.5890739 -0.067109689 1.223
	0.5890739 -0.075631551 1.223
	0.5890739 -0.092675276 1.223
	0.5890739 -0.10119715 1.223
	0.5890739 -0.11824088 1.223
	0.5890739 0.0010652331 1.223
	0.5890739 0.0095870979 1.223
	0.5890739 0.094805747 1.223
	0.5890739 0.10332761 1.223
	0.5890739 0.11184948 1.223
	0.5890739 0.12037134 1.223
	0.5890739 0.1288932 1.223
	0.5890739 0.19706813 1.223
	0.5890739 0.20558999 1.223
	0.5890739 0.28228676 1.223
	0.58928901 0.22794245 1.206
	0.58928901 0.28676632 1.206
	0.58954769 0.35023871 1.431
	0.58954769 0.38015231 1.431
	0.58954769 0.47986442 1.431
	0.58954942 0.7919699 2.905
	0.58988303 0.13857959 1.408
	0.58988303 0.15820149 1.408
	0.58988303 0.16801243 1.408
	0.58988303 0.33479849 1.408
	0.58988303 0.36423132 1.408
	0.58988303 0.37404227 1.408
	0.5903821 -0.46120065 1.301
	0.5903821 0.49066308 1.301
	0.5905084 0.82946903 2.638
	0.59069306 -0.41873324 1.2819999
	0.59069306 -0.42766625 1.2819999
	0.59069306 -0.43659922 1.2819999
	0.59073925 -0.22771513 1.263
	0.59073925 -0.23651572 1.263
	0.59073925 -0.24531631 1.263
	0.59073925 -0.29811981 1.263
	0.59073925 -0.31572098 1.263
	0.59073925 -0.32452154 1.263
	0.59073925 -0.34212273 1.263
	0.59073925 -0.3509233 1.263
	0.59073925 0.44992989 1.263
	0.59089077 0.815992 2.4849999
	0.59099531 -0.12036786 1.245
	0.59099531 -0.12904301 1.245
	0.59099531 -0.13771819 1.245
	0.59099531 -0.16374364 1.245
	0.59099531 -0.19844431 1.245
	0.59099531 -0.22446978 1.245
	0.59099531 -0.23314492 1.245
	0.59099531 -0.24182011 1.245
	0.59099531 -0.25049525 1.245
	0.59099531 -0.25917041 1.245
	0.59099531 -0.2678456 1.245
	0.59099531 -0.31122139 1.245
	0.59099531 -0.31989655 1.245
	0.59100056 -0.0074810195 1.227
	0.59100056 -0.016030757 1.227
	0.59100056 -0.084428646 1.227
	0.59100056 -0.11007786 1.227
	0.59100056 -0.12717733 1.227
	0.59100056 -0.13572706 1.227
	0.59100056 -0.15282653 1.227
	0.59100056 -0.16137627 1.227
	0.59100056 0.018168189 1.227
	0.59100056 0.1378645 1.227
	0.59100056 0.14641424 1.227
	0.59100056 0.15496397 1.227
	0.59100056 0.27466029 1.227
	0.59124357 0.076935433 1.21
	0.59124357 0.085366718 1.21
	0.59124357 0.093797997 1.21
	0.59124357 0.10222928 1.21
	0.59124357 0.11066056 1.21
	0.59124357 0.13595441 1.21
	0.59124357 0.14438568 1.21
	0.59124357 0.27085489 1.21
	0.59124357 0.29614875 1.21
	0.59124357 0.32144257 1.21
	0.59131324 -0.64840561 4.6820002
	0.59131324 -0.68102974 4.6820002
	0.59131324 -0.71365392 4.6820002
	0.59131324 -0.74627811 4.6820002
	0.59131324 -0.77890229 4.6820002
	0.59131324 -0.81152642 4.6820002
	0.59131324 -0.87677479 4.6820002
	0.59131324 -0.97464734 4.6820002
	0.59131324 -1.105144 4.6820002
	0.59131324 -1.5945067 4.6820002
	0.59153968 0.83716166 2.3499999
	0.59161717 0.84659028 2.2869999
	0.59182101 -0.027076779 4.441
	0.59182101 -0.088966556 4.441
	0.59182101 -0.49125016 4.441
	0.59182101 -0.55313993 4.441
	0.59182101 -0.58408481 4.441
	0.59182101 -0.64597458 4.441
	0.59182101 -0.70786434 4.441
	0.59182101 -1.0482582 4.441
	0.59182101 -1.079203 4.441
	0.59182101 -1.110148 4.441
	0.59182101 -1.1410928 4.441
	0.59182101 -1.4505417 4.441
	0.59182101 -1.4814866 4.441
	0.59182101 -1.7599907 4.441
	0.59182101 0.34426188 4.441
	0.59187937 0.84027463 2.2279999
	0.59201962 -0.12891759 1.437
	0.59201962 0.20151196 1.437
	0.59201962 0.25157705 1.437
	0.59201962 0.30164215 1.437
	0.59201962 0.31165516 1.437
	0.59201962 0.36172023 1.437
	0.59201962 0.39175928 1.437
	0.59219557 -0.025747633 4.223
	0.59219557 -0.29058042 4.223
	0.59219557 -0.32000628 4.223
	0.59219557 -1.3204857 4.223
	0.59219557 0.091955833 4.223
	0.59219557 0.20965929 4.223
	0.59219557 0.29793692 4.223
	0.59219557 0.32736278 4.223
	0.59219557 0.38621449 4.223
	0.59219557 0.53334385 4.223
	0.59219557 0.56276971 4.223
	0.5923968 0.10961188 1.414
	0.5923968 0.17858113 1.414
	0.5923968 0.2081394 1.414
	0.5923968 0.21799216 1.414
	0.5923968 0.25740317 1.414
	0.5923968 0.26725593 1.414
	0.5923968 0.29681417 1.414
	0.5923968 0.30666691 1.414
	0.5923968 0.31651968 1.414
	0.5923968 0.32637244 1.414
	0.5923968 0.35593069 1.414
	0.5923968 0.38548896 1.414
	0.5923968 0.42489997 1.414
	0.59245342 0.2241388 1.391
	0.59245342 0.2338313 1.391
	0.59262234 0.33506414 1.369
	0.59265113 -0.47207332 1.306
	0.59265113 -0.48117352 1.306
	0.59265113 -0.49027371 1.306
	0.59265113 -0.49937394 1.306
	0.59265113 -0.50847411 1.306
	0.59265113 -0.51757437 1.306
	0.59289408 -0.17297277 1.249
	0.59289408 -0.18167579 1.249
	0.59289408 -0.19037883 1.249
	0.59289408 -0.20778489 1.249
	0.59289408 -0.21648793 1.249
	0.59289408 -0.27740917 1.249
	0.59289408 -0.29481521 1.249
	0.59289408 -0.30351824 1.249
	0.5929969 -0.44726986 1.2869999
	0.5929969 -0.45623764 1.2869999
	0.5929969 -0.46520546 1.2869999
	0.5930779 -0.30813542 1.268
	0.5930779 -0.33464172 1.268
	0.5930779 -0.361148 1.268
	0.5930779 -0.3699834 1.268
	0.5930779 -0.37881884 1.268
	0.5930779 -0.38765424 1.268
	0.5930779 -0.39648968 1.268
	0.5930779 -0.40532508 1.268
	0.5930779 -0.41416052 1.268
	0.5930779 0.41636938 1.268
	0.5930779 0.43404025 1.268
	0.59319806 -0.0074017588 1.214
	0.59319806 -0.01586091 1.214
	0.59319806 -0.024320062 1.214
	0.59319806 -0.032779217 1.214
	0.59319806 -0.041238368 1.214
	0.59319806 -0.049697518 1.214
	0.59319806 -0.058156669 1.214
	0.59319806 -0.066615827 1.214
	0.59319806 -0.075074978 1.214
	0.59319806 -0.09199328 1.214
	0.59319806 -0.10045244 1.214
	0.59319806 -0.12582989 1.214
	0.59319806 0.0010573941 1.214
	0.59319806 0.0095165465 1.214
	0.59319806 0.017975699 1.214
	0.59319806 0.11948552 1.214
	0.59319806 0.12794468 1.214
	0.59319806 0.15332215 1.214
	0.59319806 0.2125362 1.214
	0.59319806 0.33096433 1.214
	0.59319806 0.33942351 1.214
	0.59319806 0.34788266 1.214
	0.59323204 0.084449552 1.197
	0.59323204 0.092790253 1.197
	0.59323204 0.10113095 1.197
	0.59323204 0.10947165 1.197
	0.59340888 -0.14486472 1.232
	0.59340888 -0.17061846 1.232
	0.59340888 -0.17920303 1.232
	0.59340888 -0.18778762 1.232
	0.59340888 -0.19637218 1.232
	0.59340888 -0.22212592 1.232
	0.59340888 -0.23071049 1.232
	0.59340888 -0.23929507 1.232
	0.59340888 -0.2650488 1.232
	0.59340888 -0.2993871 1.232
	0.59340888 0.16418003 1.232
	0.59366578 0.75906521 3.391
	0.59366578 0.78269368 3.391
	0.59366578 0.80632216 3.391
	0.59399331 0.79862255 3.263
	0.59399331 0.82135916 3.263
	0.59439218 0.78459775 3.033
	0.59439218 0.80573165 3.033
	0.59449148 0.19229852 1.443
	0.59449148 0.37328535 1.443
	0.59458297 -0.09605737 1.396
	0.59458297 0.059579886 1.396
	0.59458297 0.069307216 1.396
	0.59458297 0.079034552 1.396
	0.59458297 0.14712584 1.396
	0.59458297 0.15685317 1.396
	0.59458297 0.1665805 1.396
	0.59458297 0.18603516 1.396
	0.59458297 0.1957625 1.396
	0.59458297 0.20548983 1.396
	0.59458297 0.21521716 1.396
	0.59458297 0.24439915 1.396
	0.59458297 0.26385379 1.396
	0.59458297 0.27358112 1.396
	0.59458297 0.28330845 1.396
	0.59458297 0.29303578 1.396
	0.59458297 0.33194509 1.396
	0.59458297 0.34167242 1.396
	0.59458297 0.35139975 1.396
	0.59458297 0.38058174 1.396
	0.59458297 0.39030907 1.396
	0.59458297 0.40003639 1.396
	0.59458297 0.40976372 1.396
	0.59458297 0.41949105 1.396
	0.59458297 0.43894571 1.396
	0.59467787 0.8118217 2.8329999
	0.59478676 0.14480723 1.374
	0.59478676 0.17352934 1.374
	0.59478676 0.18310337 1.374
	0.59478676 0.19267739 1.374
	0.59478676 0.21182548 1.374
	0.59478676 0.22139949 1.374
	0.59478676 0.24054755 1.374
	0.59478676 0.32671386 1.374
	0.59478676 0.34586191 1.374
	0.59478676 0.38415805 1.374
	0.59489918 0.82425785 2.743
	0.59491044 0.11997154 1.42
	0.59491044 0.27828452 1.42
	0.59491044 0.34754643 1.42
	0.59491044 0.39701924 1.42
	0.59491044 0.40691379 1.42
	0.59491044 0.43659747 1.42
	0.59491044 0.47617576 1.42
	0.59515262 -0.083809376 1.2180001
	0.59515262 -0.10927045 1.2180001
	0.59515262 -0.11775748 1.2180001
	0.59515262 -0.13473152 1.2180001
	0.59515262 -0.14321855 1.2180001
	0.59515262 -0.15170558 1.2180001
	0.59515262 -0.16019259 1.2180001
	0.59515262 -0.16867961 1.2180001
	0.59515262 -0.17716664 1.2180001
	0.59515262 -0.18565367 1.2180001
	0.59515262 -0.21960177 1.2180001
	0.59515262 -0.22808881 1.2180001
	0.59515262 -0.23657583 1.2180001
	0.59515262 -0.26203689 1.2180001
	0.59515262 -0.27052394 1.2180001
	0.59515262 0.16231434 1.2180001
	0.59515262 0.17080137 1.2180001
	0.59515262 0.18777543 1.2180001
	0.59515262 0.22172353 1.2180001
	0.59515262 0.2811327 1.2180001
	0.59521443 -0.0073224972 1.201
	0.59521443 -0.015691066 1.201
	0.59521443 -0.024059635 1.201
	0.59521443 -0.032428201 1.201
	0.59521443 -0.040796772 1.201
	0.59521443 -0.049165338 1.201
	0.59521443 -0.065902479 1.201
	0.59521443 -0.074271046 1.201
	0.59521443 -0.082639612 1.201
	0.59521443 -0.091008179 1.201
	0.59521443 0.0010460711 1.201
	0.59521443 0.0094146393 1.201
	0.59521443 0.017783208 1.201
	0.59521443 0.11820603 1.201
	0.59521443 0.12657459 1.201
	0.59521443 0.13494317 1.201
	0.59521443 0.14331174 1.201
	0.59521443 0.15168029 1.201
	0.59521443 0.22699742 1.201
	0.59521443 0.235366 1.201
	0.59526753 -0.28725752 1.2539999
	0.59526753 -0.33094689 1.2539999
	0.59526753 -0.33968478 1.2539999
	0.59526753 -0.34842265 1.2539999
	0.59526753 -0.35716054 1.2539999
	0.59526753 -0.3658984 1.2539999
	0.59526753 -0.37463626 1.2539999
	0.59526753 -0.38337415 1.2539999
	0.59526753 -0.39211202 1.2539999
	0.59526753 -0.40958774 1.2539999
	0.59526753 0.17584968 1.2539999
	0.59530067 -0.47601551 1.2920001
	0.59530067 -0.48501816 1.2920001
	0.59530067 -0.49402082 1.2920001
	0.59530067 -0.50302351 1.2920001
	0.59533548 -0.2056222 1.2359999
	0.59533548 -0.21423465 1.2359999
	0.59533548 -0.24868445 1.2359999
	0.59533548 -0.25729689 1.2359999
	0.59533548 -0.2745218 1.2359999
	0.59533548 -0.28313425 1.2359999
	0.59533548 -0.29174668 1.2359999
	0.59533548 -0.30897158 1.2359999
	0.59533548 -0.31758404 1.2359999
	0.59533548 -0.33480895 1.2359999
	0.59533548 -0.34342137 1.2359999
	0.59533548 -0.35203379 1.2359999
	0.59533548 -0.3692587 1.2359999
	0.59533548 -0.37787116 1.2359999
	0.59541655 -0.4246639 1.273
	0.59541655 -0.4335342 1.273
	0.59541655 -0.44240445 1.273
	0.59541655 -0.45127472 1.273
	0.59541655 0.44462201 1.273
	0.59547925 0.83282328 2.4330001
	0.59595394 0.85489881 2.1860001
	0.59696341 -0.049221087 1.449
	0.59696341 -0.059317715 1.449
	0.59696341 -0.069414347 1.449
	0.59696341 0.092131771 1.449
	0.59696341 0.23348463 1.449
	0.59696341 0.24358128 1.449
	0.59696341 0.26377454 1.449
	0.59696341 0.32435432 1.449
	0.59696341 0.33445093 1.449
	0.59696341 0.40512738 1.449
	0.59696341 0.44551393 1.449
	0.59696341 0.47580382 1.449
	0.59700519 -0.11791163 1.425
	0.59700519 -0.22713503 1.425
	0.59700519 -0.41579363 1.425
	0.59700519 0.011170575 1.425
	0.59700519 0.060817577 1.425
	0.59700519 0.070746981 1.425
	0.59700519 0.080676377 1.425
	0.59700519 0.19982918 1.425
	0.59700519 0.22961739 1.425
	0.59700519 0.24947618 1.425
	0.59700519 0.28919378 1.425
	0.59700519 0.44806418 1.425
	0.59700519 0.45799363 1.425
	0.59700519 0.46792299 1.425
	0.59700519 0.48778176 1.425
	0.59713846 -0.018317129 1.402
	0.59713846 -0.028086266 1.402
	0.59713846 -0.04762454 1.402
	0.59713846 -0.057393674 1.402
	0.59713846 -0.086701088 1.402
	0.59713846 0.050066825 1.402
	0.59713846 0.089143366 1.402
	0.59713846 0.098912507 1.402
	0.59713846 0.11845077 1.402
	0.59713846 0.12821992 1.402
	0.59713846 0.13798904 1.402
	0.59713846 0.1770656 1.402
	0.59713846 0.25521868 1.402
	0.59713846 0.30406436 1.402
	0.59713846 0.3138335 1.402
	0.59713846 0.32360265 1.402
	0.59713846 0.36267918 1.402
	0.59713846 0.37244833 1.402
	0.59713846 0.43106315 1.402
	0.59713846 0.4506014 1.402
	0.59713846 0.46037051 1.402
	0.5972622 -0.32725215 1.24
	0.5972622 -0.38773438 1.24
	0.59728736 -0.4615908 1.277
	0.59728736 -0.47048894 1.277
	0.59728736 -0.47938707 1.277
	0.5973841 0.030049501 1.38
	0.5973841 0.1262079 1.38
	0.5973841 0.13582376 1.38
	0.5973841 0.20313464 1.38
	0.5973841 0.23198216 1.38
	0.5973841 0.25121385 1.38
	0.5973841 0.26082966 1.38
	0.5973841 0.28006136 1.38
	0.5973841 0.28967717 1.38
	0.5973841 0.35698807 1.38
	0.5973841 0.36660391 1.38
	0.5973841 0.39545143 1.38
	0.5973841 0.40506729 1.38
	0.59759575 -0.19493766 1.223
	0.59759575 -0.20345952 1.223
	0.59759575 -0.21198139 1.223
	0.59759575 -0.24606884 1.223
	0.59759575 -0.25459069 1.223
	0.59759575 -0.28015631 1.223
	0.59759575 -0.30572191 1.223
	0.59759575 -0.31424376 1.223
	0.59759575 -0.33980936 1.223
	0.59760451 -0.51400763 1.2970001
	0.59764099 -0.40244818 1.2589999
	0.59764099 -0.41999361 1.2589999
	0.59764099 -0.43753901 1.2589999
	0.59764099 -0.44631171 1.2589999
	0.59764099 -0.45508444 1.2589999
	0.59769243 -0.057773434 1.206
	0.59769243 -0.099790476 1.206
	0.59769243 -0.10819388 1.206
	0.59769243 -0.17542115 1.206
	0.59769243 -0.25105181 1.206
	0.59769243 -0.25945523 1.206
	0.59769243 -0.26785865 1.206
	0.59769243 -0.27626204 1.206
	0.59769243 -0.46954042 1.206
	0.59769243 -0.47794384 1.206
	0.59769243 0.16071518 1.206
	0.59926635 -0.58691037 7.0929999
	0.59926635 -0.83403045 7.0929999
	0.59926635 -0.8834545 7.0929999
	0.59926635 -1.0811507 7.0929999
	0.59926635 -1.1305747 7.0929999
	0.59926635 -1.2788466 7.0929999
	0.59926635 -1.3282707 7.0929999
	0.59926635 -1.3776947 7.0929999
	0.59926635 -1.4271188 7.0929999
	0.59926635 -1.4765427 7.0929999
	0.59926635 -1.5259668 7.0929999
	0.59926635 -1.6248149 7.0929999
	0.59926635 -1.6742389 7.0929999
	0.59926635 -1.723663 7.0929999
	0.59939611 -0.03995974 6.5539999
	0.59939611 -0.35963768 6.5539999
	0.59939611 -0.63364732 6.5539999
	0.59939611 -0.86198866 6.5539999
	0.59939611 -0.90765691 6.5539999
	0.59939611 -1.8210225 6.5539999
	0.59939611 -1.8666908 6.5539999
	0.59939611 0.0057085343 6.5539999
	0.59939611 0.097045086 6.5539999
	0.59939611 0.14271335 6.5539999
	0.59939611 0.18838163 6.5539999
	0.59939611 0.27971819 6.5539999
	0.59939611 0.37105471 6.5539999
	0.59946406 -1.8974773 5.6880002
	0.5994876 -0.055852879 4.2750001
	0.5994876 -0.14521749 4.2750001
	0.5994876 -0.17500569 4.2750001
	0.5994876 -0.26437029 4.2750001
	0.5994876 -0.59204054 4.2750001
	0.5994876 -1.0388635 4.2750001
	0.5994876 -1.0686518 4.2750001
	0.5994876 -1.1878046 4.2750001
	0.5994876 -1.2175928 4.2750001
	0.5994876 -1.2771692 4.2750001
	0.5994876 0.063299932 4.2750001
	0.5994876 0.15266454 4.2750001
	0.5994876 0.18245274 4.2750001
	0.5994876 0.36118197 4.2750001
	0.5994876 0.42075837 4.2750001
	0.5994876 0.45054656 4.2750001
	0.5994876 0.48033479 4.2750001
	0.5994876 0.51012295 4.2750001
	0.5994876 0.6292758 4.2750001
	0.5995189 -0.038638435 1.431
	0.5995189 -0.1084369 1.431
	0.5995189 -0.15829293 1.431
	0.5995189 -0.29788986 1.431
	0.5995189 0.021188818 1.431
	0.5995189 0.051102445 1.431
	0.5995189 0.09098728 1.431
	0.5995189 0.10095849 1.431
	0.5995189 0.19069935 1.431
	0.5995189 0.24055542 1.431
	0.5995189 0.42003718 1.431
	0.5995189 0.53969163 1.431
	0.5995189 0.54966289 1.431
	0.5995189 0.55963409 1.431
	0.59952241 -0.85586995 4.7470002
	0.59952241 -0.92202413 4.7470002
	0.59952241 -0.95510119 4.7470002
	0.59952241 -1.5174119 4.7470002
	0.59952241 -1.6497203 4.7470002
	0.59952241 -1.7158746 4.7470002
	0.59952241 -1.7489517 4.7470002
	0.59952241 0.020181943 1.363
	0.59952241 0.096161015 1.363
	0.59952241 0.10565841 1.363
	0.59952241 0.11515579 1.363
	0.59952241 0.12465318 1.363
	0.59952241 0.15314534 1.363
	0.59952241 0.20063224 1.363
	0.59953982 -0.43012857 1.263
	0.59953982 -0.46533093 1.263
	0.59953982 -0.47413152 1.263
	0.59954852 -0.0084443456 1.385
	0.59954852 -0.018095026 1.385
	0.59954852 -0.03739639 1.385
	0.59954852 -0.047047067 1.385
	0.59954852 -0.056697749 1.385
	0.59954852 -0.095300473 1.385
	0.59954852 0.001206335 1.385
	0.59954852 0.020507697 1.385
	0.59954852 0.039809056 1.385
	0.59954852 0.049459737 1.385
	0.59954852 0.059110418 1.385
	0.59954852 0.068761095 1.385
	0.59954852 0.07841178 1.385
	0.59954852 0.088062458 1.385
	0.59954852 0.097713143 1.385
	0.59954852 0.10736382 1.385
	0.59954852 0.1170145 1.385
	0.59954852 0.15561722 1.385
	0.59954852 0.1652679 1.385
	0.59954852 0.2714254 1.385
	0.59954852 0.30037743 1.385
	0.59954852 0.31002811 1.385
	0.59954852 0.31967878 1.385
	0.59954852 0.37758288 1.385
	0.59954852 0.41618559 1.385
	0.59954852 0.42583629 1.385
	0.59954852 0.43548694 1.385
	0.59955025 -0.058779441 4.4990001
	0.59955025 -0.28962234 1.227
	0.59955025 -0.29817206 1.227
	0.59955025 -0.32382128 1.227
	0.59955025 -0.332371 1.227
	0.59955025 -0.3494705 1.227
	0.59955025 -0.37511969 1.227
	0.59955025 -0.38366944 1.227
	0.59955025 -0.39221916 1.227
	0.59955025 -0.40076891 1.227
	0.59955025 -0.40931866 1.227
	0.59955025 -0.43496785 1.227
	0.59955025 -0.44351757 1.227
	0.59955025 -0.46061704 1.227
	0.59955025 -0.52901495 4.4990001
	0.59955025 -0.62306207 4.4990001
	0.59955025 -0.74845821 4.4990001
	0.59955025 -0.77980727 4.4990001
	0.59955025 -0.81115627 4.4990001
	0.59955025 -0.84250534 4.4990001
	0.59955025 -0.87385434 4.4990001
	0.59955025 -0.93655241 4.4990001
	0.59955025 -0.96790147 4.4990001
	0.59955025 -1.1873447 4.4990001
	0.59955025 -1.5948821 4.4990001
	0.59955025 -1.6889293 4.4990001
	0.59956241 -0.45616624 1.193
	0.59956241 -0.47279191 1.193
	0.59959471 0.8319636 2.382
	0.599626 -0.49019706 1.2819999
	0.599626 -0.49913004 1.2819999
	0.59963655 0.84191388 2.3180001
	0.59965742 0.81689179 2.598
	0.59967047 -0.36327237 1.245
	0.59967047 -0.397973 1.245
	0.59967047 -0.40664816 1.245
	0.59967047 -0.41532332 1.245
	0.59967047 -0.42399848 1.245
	0.59967047 -0.44134879 1.245
	0.59967047 -0.45002395 1.245
	0.59967047 -0.46737429 1.245
	0.59967047 -0.49339974 1.245
	0.59967488 -0.11698402 1.21
	0.59967488 -0.1254153 1.21
	0.59967488 -0.13384658 1.21
	0.59967488 -0.14227787 1.21
	0.59967488 -0.15070914 1.21
	0.59967488 -0.16757169 1.21
	0.59967488 -0.18443426 1.21
	0.59967488 -0.19286555 1.21
	0.59967488 -0.20129682 1.21
	0.59967488 -0.20972811 1.21
	0.59967488 -0.21815938 1.21
	0.59967488 -0.24345323 1.21
	0.59967488 -0.4289414 1.21
	0.59967488 -0.44580397 1.21
	0.59968615 0.82369339 2.6789999
	0.59968883 0.81056839 2.5220001
	0.59969401 -0.0085845767 1.408
	0.59969401 -0.038017411 1.408
	0.59969401 -0.067450248 1.408
	0.59969401 -0.15574874 1.408
	0.59969401 0.011037312 1.408
	0.59969401 0.020848257 1.408
	0.59969401 0.030659202 1.408
	0.59969401 0.040470146 1.408
	0.59969401 0.10914676 1.408
	0.59971583 0.79879159 2.8570001
	0.59977067 0.84504426 2.2
	0.59982723 0.57918805 1.4809999
	0.59984726 -0.039313458 1.456
	0.59984726 -0.14076754 1.456
	0.59984726 0.001268176 1.456
	0.59984726 0.12301307 1.456
	0.59984726 0.13315848 1.456
	0.59984726 0.17374012 1.456
	0.59984726 0.2751942 1.456
	0.59984726 0.28533962 1.456
	0.59984726 0.29548502 1.456
	0.59984726 0.41722992 1.456
	0.59984726 0.43752071 1.456
	0.59984726 0.45781153 1.456
	0.59984726 0.49839321 1.456
	0.59984726 0.5288294 1.456
	0.59984726 0.53897482 1.456
	0.60157275 -0.14074926 1.197
	0.60157275 -0.16577134 1.197
	0.60157275 -0.24917832 1.197
	0.60157275 -0.27420041 1.197
	0.60157275 -0.37428877 1.197
	0.60157275 -0.38262945 1.197
	0.60157275 -0.40765154 1.197
	0.60157275 -0.41599223 1.197
	0.60157275 -0.42433295 1.197
	0.60157275 -0.43267363 1.197
	0.60157275 -0.44101435 1.197
	0.60157275 -0.46603644 1.197
	0.60159707 -0.43406373 1.249
	0.60159707 -0.4601728 1.249
	0.60159707 -0.47757888 1.249
	0.60159707 -0.48628193 1.249
	0.60165721 -0.15966649 1.214
	0.60165721 -0.22733973 1.214
	0.60165721 -0.23579887 1.214
	0.60165721 -0.28655377 1.214
	0.60165721 -0.29501295 1.214
	0.60165721 -0.3034721 1.214
	0.60165721 -0.31193125 1.214
	0.60165721 -0.3373087 1.214
	0.60165721 -0.34576786 1.214
	0.60165721 -0.35422701 1.214
	0.60165721 -0.36268616 1.214
	0.60165721 -0.37114531 1.214
	0.60165721 -0.37960446 1.214
	0.60165721 -0.38806361 1.214
	0.60165721 -0.39652276 1.214
	0.60165721 -0.40498194 1.214
	0.60165721 -0.41344106 1.214
	0.60165721 -0.42190021 1.214
	0.60165721 -0.43881854 1.214
	0.60165721 -0.45573685 1.214
	0.60165721 -0.46419597 1.214
	0.60191327 -0.48484391 1.268
	0.60191327 -0.49367937 1.268
	0.60191327 -0.50251478 1.268
	0.60196465 -0.51004452 1.2869999
	0.60199338 -0.35947913 1.232
	0.60199338 -0.36806372 1.232
	0.60199338 -0.41957119 1.232
	0.60199338 -0.42815575 1.232
	0.60199338 -0.45390949 1.232
	0.60199338 -0.47107866 1.232
	0.60203266 -0.0087613892 1.437
	0.60203266 -0.09887854 1.437
	0.60203266 -0.12891759 1.437
	0.60203266 -0.1389306 1.437
	0.60203266 -0.14894363 1.437
	0.60203266 -0.16896966 1.437
	0.60203266 -0.28912586 1.437
	0.60203266 -0.42930812 1.437
	0.60203266 0.031290676 1.437
	0.60203266 0.13142085 1.437
	0.60203266 0.50190246 1.437
	0.60203266 0.5119155 1.437
	0.60203266 0.52192849 1.437
	0.60203266 0.53194153 1.437
	0.60214585 -0.027865905 1.391
	0.60214585 -0.066635862 1.391
	0.60214585 -0.076328352 1.391
	0.60214585 -0.086020835 1.391
	0.60214585 -0.10540582 1.391
	0.60214585 -0.11509831 1.391
	0.60214585 -0.1247908 1.391
	0.60214585 -0.13448328 1.391
	0.60214585 -0.15386826 1.391
	0.60214585 -0.16356075 1.391
	0.60214585 -0.17325324 1.391
	0.60214585 -0.18294573 1.391
	0.60214585 -0.19263822 1.391
	0.60214585 -0.20233071 1.391
	0.60214585 0.01090405 1.391
	0.60214585 0.44706604 1.391
	0.60214585 0.4567585 1.391
	0.60216153 0.010731591 1.369
	0.60216153 0.029809976 1.369
	0.60216153 0.039349169 1.369
	0.60216153 0.048888359 1.369
	0.60216153 0.058427557 1.369
	0.60216153 0.067966744 1.369
	0.60216153 0.077505939 1.369
	0.60216153 0.087045133 1.369
	0.60216153 0.13474108 1.369
	0.60216153 0.14428028 1.369
	0.60216153 0.16335867 1.369
	0.60216153 0.17289786 1.369
	0.60216153 0.18243706 1.369
	0.60216153 0.19197625 1.369
	0.60216153 0.23967221 1.369
	0.60224956 -0.077590428 1.414
	0.60224956 -0.10714869 1.414
	0.60224956 -0.11700144 1.414
	0.60224956 -0.1465597 1.414
	0.60224956 -0.1662652 1.414
	0.60224956 -0.22538172 1.414
	0.60224956 -0.23523447 1.414
	0.60224956 -0.24508724 1.414
	0.60224956 0.0012315941 1.414
	0.60224956 0.47416374 1.414
	0.60224956 0.48401651 1.414
	0.60231918 0.11333278 1.462
	0.60231918 0.42913651 1.462
	0.60231918 0.51063424 1.462
	0.60231918 0.55138314 1.462
	0.6035682 0.84103769 2.2720001
	0.60358298 -0.14958815 1.201
	0.60358298 -0.15795673 1.201
	0.60358298 -0.17469387 1.201
	0.60358298 -0.18306243 1.201
	0.60358298 -0.191431 1.201
	0.60358298 -0.19979957 1.201
	0.60358298 -0.20816813 1.201
	0.60358298 -0.2165367 1.201
	0.60358298 -0.24164242 1.201
	0.60358298 -0.25837955 1.201
	0.60358298 -0.26674813 1.201
	0.60358298 -0.28348526 1.201
	0.60358298 -0.29185382 1.201
	0.60358298 -0.30022237 1.201
	0.60358298 -0.30859095 1.201
	0.60358298 -0.31695953 1.201
	0.60358298 -0.3504338 1.201
	0.60358298 -0.35880238 1.201
	0.60358298 -0.36717093 1.201
	0.60358298 -0.39227664 1.201
	0.60358298 -0.40064523 1.201
	0.60358298 -0.45085663 1.201
	0.60363966 -0.32144606 1.2180001
	0.60363966 -0.32993308 1.2180001
	0.60387391 0.82118487 2.3989999
	0.60394794 -0.48122057 1.2359999
	0.60394794 -0.48983297 1.2359999
	0.60394794 0.19916286 1.2359999
	0.60404551 0.8276068 2.4679999
	0.60431027 -0.14469402 1.396
	0.60431027 -0.21278532 1.396
	0.60431027 -0.22251265 1.396
	0.60431027 -0.23223999 1.396
	0.60431027 -0.35869524 1.396
	0.60431027 0.4681277 1.396
	0.60431027 0.477855 1.396
	0.60431027 0.48758236 1.396
	0.60436082 -0.0083772782 1.374
	0.60436082 -0.01795131 1.374
	0.60436082 -0.027525343 1.374
	0.60436082 -0.037099376 1.374
	0.60436082 -0.065821476 1.374
	0.60436082 -0.084969535 1.374
	0.60436082 -0.094543569 1.374
	0.60436082 -0.16156179 1.374
	0.60436082 0.001196754 1.374
	0.60454631 -0.049017265 1.443
	0.60454631 -0.059072092 1.443
	0.60454631 -0.069126919 1.443
	0.60454631 -0.17972998 1.443
	0.60454631 -0.21994929 1.443
	0.60454631 -0.41099095 1.443
	0.60454631 0.001256853 1.443
	0.60454631 0.041476153 1.443
	0.60468745 0.29259071 1.493
	0.6047911 -0.19307286 1.4680001
	0.6047911 -0.20330186 1.4680001
	0.6047911 0.16494302 1.4680001
	0.6047911 0.47181377 1.4680001
	0.6047911 0.52295893 1.4680001
	0.6047911 0.56387496 1.4680001
	0.60480499 -0.12739246 1.42
	0.60480499 -0.17686526 1.42
	0.60480499 -0.19665439 1.42
	0.60480499 -0.25602177 1.42
	0.60480499 -0.26591632 1.42
	0.60480499 -0.27581087 1.42
	0.60480499 -0.28570542 1.42
	0.60480499 -0.2956 1.42
	0.60480499 -0.30549455 1.42
	0.60480499 -0.3153891 1.42
	0.60480499 -0.32528368 1.42
	0.60480499 -0.38465104 1.42
	0.60480499 0.49596483 1.42
	0.60480499 0.50585938 1.42
	0.60480499 0.51575392 1.42
	0.60546172 0.79086632 3.326
	0.60609585 -0.22584161 1.206
	0.60609585 -0.234245 1.206
	0.60609585 -0.32668248 1.206
	0.60609585 -0.3350859 1.206
	0.60609585 -0.34348932 1.206
	0.60633886 -0.32543612 3.9330001
	0.60633886 -0.35284126 3.9330001
	0.60633886 0.38709769 3.9330001
	0.60633886 0.46931311 3.9330001
	0.60675436 -0.025131837 4.1220002
	0.60675436 -0.11129814 4.1220002
	0.60675436 -0.14002024 4.1220002
	0.60675436 -0.16874233 4.1220002
	0.60675436 -0.28363073 4.1220002
	0.60675436 -0.31235284 4.1220002
	0.60675436 -0.34107494 4.1220002
	0.60675436 -1.0878495 4.1220002
	0.60675436 -1.260182 4.1220002
	0.60675436 -1.2889042 4.1220002
	0.60675436 0.0035902625 4.1220002
	0.60675436 0.061034463 4.1220002
	0.60675436 0.089756556 4.1220002
	0.60675436 0.20464495 4.1220002
	0.60675436 0.29081127 4.1220002
	0.60675436 0.31953338 4.1220002
	0.60675436 0.40569964 4.1220002
	0.60675436 0.49186596 4.1220002
	0.60675436 0.52058804 4.1220002
	0.60675436 0.54931015 4.1220002
	0.60675436 0.57803226 4.1220002
	0.60675436 0.63547647 4.1220002
	0.60675436 0.66419858 4.1220002
	0.60690755 -0.24300726 1.402
	0.60690755 -0.25277641 1.402
	0.60690755 -0.26254553 1.402
	0.60690755 -0.27231467 1.402
	0.60690755 -0.29185295 1.402
	0.60690755 -0.30162206 1.402
	0.60690755 -0.35046777 1.402
	0.60690755 -0.37977517 1.402
	0.60690755 -0.38954431 1.402
	0.60690755 0.49944708 1.402
	0.60690755 0.50921625 1.402
	0.60693455 -0.13777043 1.425
	0.60693455 -0.20727623 1.425
	0.60693455 -0.35621724 1.425
	0.60693455 -0.37607604 1.425
	0.60693455 -0.41579363 1.425
	0.60693455 0.52749944 1.425
	0.60693455 0.5374288 1.425
	0.60693455 0.54735821 1.425
	0.60699993 -0.046877224 1.38
	0.60699993 -0.056493063 1.38
	0.60699993 -0.10457227 1.38
	0.60699993 -0.13341978 1.38
	0.60699993 -0.14303564 1.38
	0.60699993 -0.15265146 1.38
	0.60699993 -0.17188315 1.38
	0.60699993 -0.20073068 1.38
	0.60699993 -0.21034652 1.38
	0.60699993 -0.21996234 1.38
	0.60699993 -0.22957818 1.38
	0.60699993 -0.24880987 1.38
	0.60699993 -0.25842571 1.38
	0.60699993 -0.28727326 1.38
	0.60706002 -0.018931186 1.449
	0.60706002 -0.079510987 1.449
	0.60706002 -0.19057393 1.449
	0.60706002 -0.20067059 1.449
	0.60706002 -0.20738076 4.329
	0.60706002 -0.21076721 1.449
	0.60706002 -0.24105711 1.449
	0.60706002 -0.25115374 1.449
	0.60706002 -0.31173354 1.449
	0.60706002 -0.32183015 1.449
	0.60706002 -0.35820314 4.329
	0.60706002 -0.62968338 4.329
	0.60706002 -0.65984786 4.329
	0.60706002 -0.99165708 4.329
	0.60706002 -1.0218216 4.329
	0.60706002 -1.1123151 4.329
	0.60706002 -1.1424794 4.329
	0.60706002 -1.1726439 4.329
	0.60706002 -1.3837953 4.329
	0.60706002 -1.5647821 4.329
	0.60706002 -1.6552756 4.329
	0.60706002 -1.6854399 4.329
	0.60706002 -1.7156044 4.329
	0.60706002 0.033935033 4.329
	0.60706002 0.12442845 4.329
	0.60706002 0.24508636 4.329
	0.60706002 0.27525082 4.329
	0.60706002 0.66738898 4.329
	0.60726297 -0.0089869788 1.474
	0.60726297 0.57645047 1.474
	0.60740405 0.84027463 2.2279999
	0.60741282 -0.91707426 4.5580001
	0.60741282 -1.6475576 4.5580001
	0.60791445 0.83716166 2.3499999
	0.60901976 0.029679328 1.363
	0.60901976 0.03917671 1.363
	0.60919923 -0.11460183 1.385
	0.60919923 -0.12425251 1.385
	0.60919923 -0.18215659 1.385
	0.60919923 -0.24006067 1.385
	0.60919923 -0.26901272 1.385
	0.60919923 -0.31726614 1.385
	0.60919923 -0.32691678 1.385
	0.60919923 -0.34621817 1.385
	0.60919923 -0.35586885 1.385
	0.60919923 -0.39447156 1.385
	0.60919923 -0.40412226 1.385
	0.60943002 0.82481092 2.8099999
	0.60947615 -1.8082806 5.783
	0.6094901 -0.21812019 1.431
	0.6094901 -0.40757316 1.431
	0.6094901 0.55963409 1.431
	0.60950494 -0.28329101 1.408
	0.60950494 -0.31272388 1.408
	0.60950494 -0.3225348 1.408
	0.60950494 -0.33234575 1.408
	0.60950494 -0.34215671 1.408
	0.60950494 -0.37158951 1.408
	0.60950494 -0.40102234 1.408
	0.60950494 -0.4108333 1.408
	0.60950494 0.52120644 1.408
	0.60950494 0.53101736 1.408
	0.60950494 0.54082829 1.408
	0.60999268 -0.029168049 1.456
	0.60999268 -0.090040497 1.456
	0.60999268 -0.26251245 1.456
	0.60999268 -0.28280327 1.456
	0.60999268 -0.40454817 1.456
	0.60999268 -0.44512981 1.456
	0.61004668 0.79855901 3.006
	0.61087066 0.76851475 3.2320001
	0.61087066 0.79103529 3.2320001
	0.61101091 -0.087287277 6.6810002
	0.61101091 -0.22694692 6.6810002
	0.61101091 -0.83213872 6.6810002
	0.61101091 -1.809756 6.6810002
	0.61118603 0.85489881 2.1860001
	0.61170071 -0.32314014 1.369
	0.61170071 0.058427557 1.369
	0.61183834 -0.27987063 1.391
	0.61183834 -0.29925558 1.391
	0.61183834 -0.3089481 1.391
	0.61183834 -0.36710304 1.391
	0.61183834 -0.3767955 1.391
	0.61183834 -0.38648799 1.391
	0.61183834 -0.41556546 1.391
	0.61183834 -0.42525792 1.391
	0.61193937 -1.2049527 7.243
	0.61193937 -1.2554221 7.243
	0.61204565 -0.18899569 1.437
	0.61204565 -0.33919093 1.437
	0.61204565 -0.34920394 1.437
	0.61204565 -0.36923 1.437
	0.61204565 -0.39926904 1.437
	0.61204565 -0.42930812 1.437
	0.61204565 -0.47937319 1.437
	0.61210227 -0.42243677 1.414
	0.61210227 -0.43228954 1.414
	0.61210227 -0.44214228 1.414
	0.61210227 -0.45199502 1.414
	0.61210227 0.55298573 1.414
	0.61250639 -0.34509197 1.462
	0.61250639 -0.35527918 1.462
	0.61250639 -0.36546639 1.462
	0.61250639 -0.37565362 1.462
	0.61250639 -0.46733859 1.462
	0.61261183 0.82190263 2.503
	0.61279643 0.66579509 3.803
	0.61343056 -0.16288833 3.9790001
	0.61343056 -0.38469374 3.9790001
	0.61343056 0.05891706 3.9790001
	0.61343056 0.086642735 3.9790001
	0.61343056 0.14209409 3.9790001
	0.61343056 0.41935083 3.9790001
	0.61343056 0.4470765 3.9790001
	0.61343056 0.50252783 3.9790001
	0.61343056 0.53025347 3.9790001
	0.61343056 0.55797923 3.9790001
	0.61343056 0.61343056 3.9790001
	0.61343056 0.6411562 3.9790001
	0.61393481 0.049066916 1.374
	0.61401236 0.82425785 2.743
	0.61403763 -0.43651387 1.396
	0.61403763 -0.44624123 1.396
	0.61403763 -0.47542319 1.396
	0.61411428 -0.054507181 4.1719999
	0.61411428 -0.083577685 4.1719999
	0.61411428 -0.19985966 4.1719999
	0.61411428 -0.25800067 4.1719999
	0.61411428 -0.37428266 4.1719999
	0.61411428 -0.57777613 4.1719999
	0.61411428 -0.8684811 4.1719999
	0.61411428 -1.0429041 4.1719999
	0.61411428 -1.0719746 4.1719999
	0.61411428 -1.1301155 4.1719999
	0.61411428 -1.2173271 4.1719999
	0.61411428 -1.2463976 4.1719999
	0.61411428 -1.3336091 4.1719999
	0.61411428 -1.3626796 4.1719999
	0.61411428 -1.3917501 4.1719999
	0.61411428 -1.4208206 4.1719999
	0.61411428 -1.5080321 4.1719999
	0.61411428 0.032704309 4.1719999
	0.61411428 0.1199158 4.1719999
	0.61411428 0.14898631 4.1719999
	0.61411428 0.17805679 4.1719999
	0.61411428 0.23619778 4.1719999
	0.61411428 0.2652683 4.1719999
	0.61411428 0.35247979 4.1719999
	0.61411428 0.38155028 4.1719999
	0.61411428 0.43969128 4.1719999
	0.61411428 0.46876177 4.1719999
	0.61411428 0.61411428 4.1719999
	0.61460114 -0.4411554 1.443
	0.61460114 -0.45121023 1.443
	0.61460114 -0.46126509 1.443
	0.61460114 -0.47131991 1.443
	0.61469954 -0.46380752 1.42
	0.61469954 -0.47370207 1.42
	0.61469954 -0.48359662 1.42
	0.61477274 -0.087824672 4.3839998
	0.61477274 -0.24056323 4.3839998
	0.61477274 -0.45439723 4.3839998
	0.61477274 -0.48494497 4.3839998
	0.61477274 -0.51549262 4.3839998
	0.61477274 -0.54604036 4.3839998
	0.61477274 -0.57658803 4.3839998
	0.61477274 -0.69877893 4.3839998
	0.61477274 -0.72932667 4.3839998
	0.61477274 -0.75987434 4.3839998
	0.61477274 -0.79042208 4.3839998
	0.61477274 -0.94316059 4.3839998
	0.61477274 -0.97370833 4.3839998
	0.61477274 -1.2791854 4.3839998
	0.61477274 -1.431924 4.3839998
	0.61477274 -1.4624717 4.3839998
	0.61477274 -1.4930195 4.3839998
	0.61477274 -1.5235672 4.3839998
	0.61477274 -1.5541149 4.3839998
	0.61477274 -1.6152103 4.3839998
	0.61477274 -1.645758 4.3839998
	0.61502016 -0.4590275 1.4680001
	0.61502016 -0.47948554 1.4680001
	0.61510026 0.84504426 2.2
	0.6155262 0.78459775 3.033
	0.61554182 -1.7017921 4.619
	0.6157884 0.84191388 2.3180001
	0.61594945 0.79115283 3.1429999
	0.61619246 0.8319636 2.382
	0.61661577 -0.46997422 1.38
	0.61667669 -0.45792827 1.402
	0.61667669 -0.4872357 1.402
	0.61672986 0.82135916 3.263
	0.61686397 -0.50515825 1.425
	0.61686397 -0.51508766 1.425
	0.61686397 -0.52501702 1.425
	0.61686397 -0.53494644 1.425
	0.61715662 -0.51366615 1.449
	0.61715662 -0.54395604 1.449
	0.6175338 -0.52252859 1.474
	0.6175338 -0.53279942 1.474
	0.6177603 0.81689179 2.598
	0.61797452 -0.55264956 1.5
	0.61835343 0.82369339 2.6789999
	0.61884987 -0.42342362 1.385
	0.61893702 0.81160223 2.7650001
	0.61900318 0.28828794 1.249
	0.61931586 -0.49913177 1.408
	0.61939955 0.84103769 2.2720001
	0.6194613 -0.49731404 1.431
	0.6194613 -0.54717004 1.431
	0.6194613 -0.56711245 1.431
	0.61962336 0.81869918 2.8570001
	0.61972529 0.056947723 3.846
	0.61972529 0.13734452 3.846
	0.61972529 0.48573059 3.846
	0.61972529 0.51252949 3.846
	0.61972529 0.61972529 3.846
	0.61972529 0.64652419 3.846
	0.62013811 -0.49585682 1.456
	0.620287 0.805601 2.9549999
	0.62046641 -0.39085516 1.4809999
	0.62046641 -0.49405122 1.4809999
	0.62046641 -0.50437087 1.4809999
	0.62046641 -0.51469046 1.4809999
	0.6205222 -0.080632836 4.0250001
	0.6205222 -0.10867903 4.0250001
	0.6205222 -0.13672523 4.0250001
	0.6205222 -0.19281764 4.0250001
	0.6205222 -0.22086385 4.0250001
	0.6205222 -0.24891004 4.0250001
	0.6205222 -0.30500245 4.0250001
	0.6205222 -1.0902961 4.0250001
	0.6205222 -1.2866195 4.0250001
	0.6205222 -1.3146657 4.0250001
	0.6205222 -1.3427119 4.0250001
	0.6205222 -1.4829429 4.0250001
	0.6205222 0.0035057752 4.0250001
	0.6205222 0.17178299 4.0250001
	0.6205222 0.19982919 4.0250001
	0.6205222 0.2278754 4.0250001
	0.6205222 0.31201401 4.0250001
	0.6205222 0.3400602 4.0250001
	0.6205222 0.3681064 4.0250001
	0.6205222 0.59247607 4.0250001
	0.62153083 -0.36710304 1.391
	0.62153083 -0.3767955 1.391
	0.62153083 -0.44464293 1.391
	0.62162143 -0.2317287 4.223
	0.62162143 -0.43770978 4.223
	0.62162143 -0.46713561 4.223
	0.62162143 -0.52598733 4.223
	0.62162143 -0.55541325 4.223
	0.62162143 -0.64369082 4.223
	0.62162143 -0.67311668 4.223
	0.62162143 -0.90852368 4.223
	0.62162143 -1.0262271 4.223
	0.62162143 -1.1733564 4.223
	0.62162143 -1.2027823 4.223
	0.62162143 -1.4676151 4.223
	0.62162143 -1.6147443 4.223
	0.62162143 -1.6441703 4.223
	0.62166756 0.8163535 2.54
	0.62195504 -0.51111156 1.414
	0.62195504 -0.52096432 1.414
	0.62195504 -0.53081709 1.414
	0.62195504 -0.5406698 1.414
	0.62195504 -0.55052257 1.414
	0.62205869 -0.55947727 1.437
	0.62240613 0.84942359 2.1719999
	0.62269366 -0.53864908 1.462
	0.62269366 -0.5590235 1.462
	0.6227659 -0.42936033 4.441
	0.6227659 -0.83164394 4.441
	0.6227659 -0.86258882 4.441
	0.6227659 -0.92447865 4.441
	0.6229288 0.84027463 2.2279999
	0.623083 -0.13648485 6.8130002
	0.623083 -0.18395783 6.8130002
	0.623083 -0.42132279 6.8130002
	0.623083 -1.7980394 6.8130002
	0.62376493 -0.49487785 1.396
	0.62428927 0.83716166 2.3499999
	0.62498778 0.82700408 2.4159999
	0.62524915 -0.51017261 1.4680001
	0.62552172 0.8333075 2.4849999
	0.62665403 -0.023711234 3.8889999
	0.62665403 -0.21340109 3.8889999
	0.62665403 -0.32179531 3.8889999
	0.62665403 -1.0805547 3.8889999
	0.62665403 0.0033873192 3.8889999
	0.62665403 0.030485872 3.8889999
	0.62665403 0.084682979 3.8889999
	0.62665403 0.19307719 3.8889999
	0.62665403 0.22017576 3.8889999
	0.62665403 0.24727431 3.8889999
	0.62665403 0.38276708 3.8889999
	0.62665403 0.40986562 3.8889999
	0.62665403 0.46406269 3.8889999
	0.62679344 -0.56473464 1.425
	0.62751192 0.78369272 3.2019999
	0.62780464 -0.53279942 1.474
	0.62792224 -0.024833083 4.073
	0.62792224 -0.053213749 4.073
	0.62792224 -0.28025907 4.073
	0.62792224 -0.42216238 4.073
	0.62792224 -0.45054308 4.073
	0.62792224 -0.56406575 4.073
	0.62792224 -1.046537 4.073
	0.62792224 -1.0749177 4.073
	0.62792224 -1.1316791 4.073
	0.62792224 -1.1600597 4.073
	0.62792224 -1.2452016 4.073
	0.62792224 -1.2735825 4.073
	0.62792224 -1.387105 4.073
	0.62792224 -1.4154856 4.073
	0.62792224 -1.5290084 4.073
	0.62792224 0.031928249 4.073
	0.62792224 0.11707024 4.073
	0.62792224 0.2589736 4.073
	0.62792224 0.28735423 4.073
	0.62842655 -0.57355356 1.5
	0.62842655 -0.59445757 1.5
	0.62912685 -0.50894278 1.408
	0.62912685 -0.51875371 1.408
	0.62912685 -0.52856463 1.408
	0.62912685 -0.53837556 1.408
	0.62912685 -0.54818648 1.408
	0.6292758 -0.41331133 4.2750001
	0.6292758 -0.50267589 4.2750001
	0.6292758 -0.62182868 4.2750001
	0.6292758 -0.74098158 4.2750001
	0.6292758 -0.77076977 4.2750001
	0.6292758 -0.86013436 4.2750001
	0.6292758 -0.94949895 4.2750001
	0.6292758 -0.97928721 4.2750001
	0.6292758 -1.0090754 4.2750001
	0.6292758 -1.5154748 4.2750001
	0.6292758 -1.5750512 4.2750001
	0.6292758 -1.694204 4.2750001
	0.63003349 0.81221193 2.905
	0.63005269 0.82190263 2.503
	0.6304298 0.84504426 2.2
	0.63078606 -0.57660812 1.4809999
	0.63089931 -0.9052034 4.4990001
	0.63099247 0.79855901 3.006
	0.63135922 -0.58673084 1.507
	0.6318078 -0.56037527 1.414
	0.63194013 0.84191388 2.3180001
	0.63202721 0.81723672 2.658
	0.63216746 0.7841047 3.115
	0.63240355 -0.022936916 3.7620001
	0.63240355 -0.10157777 3.7620001
	0.63240355 0.0032767022 3.7620001
	0.63240355 0.029490322 3.7620001
	0.63240355 0.055703938 3.7620001
	0.63240355 0.081917554 3.7620001
	0.63240355 0.1343448 3.7620001
	0.63240355 0.21298565 3.7620001
	0.63240355 0.23919927 3.7620001
	0.63240355 0.39648098 3.7620001
	0.63240355 0.42269459 3.7620001
	0.63240355 0.60618991 3.7620001
	0.6331256 0.80514461 2.743
	0.6331256 0.82425785 2.743
	0.63334161 -0.58930558 1.487
	0.63343126 0.84394854 2.158
	0.633744 -0.05138465 3.9330001
	0.633744 -0.078789793 3.9330001
	0.633744 -0.18841037 3.9330001
	0.633744 -0.24322067 3.9330001
	0.633744 -0.2706258 3.9330001
	0.633744 -0.29803097 3.9330001
	0.633744 -0.35284126 3.9330001
	0.633744 -0.3802464 3.9330001
	0.633744 -0.40765154 3.9330001
	0.633744 -0.43505669 3.9330001
	0.633744 -0.46246186 3.9330001
	0.633744 -0.62689275 3.9330001
	0.633744 -0.9831596 3.9330001
	0.633744 -1.0105647 3.9330001
	0.633744 -1.0653751 3.9330001
	0.633744 -1.1201854 3.9330001
	0.633744 -1.2024008 3.9330001
	0.633744 -1.2298059 3.9330001
	0.633744 -1.2572111 3.9330001
	0.633744 0.11304623 3.9330001
	0.633744 0.16785653 3.9330001
	0.633744 0.27747709 3.9330001
	0.633744 0.30488226 3.9330001
	0.633744 0.3322874 3.9330001
	0.633744 0.35969254 3.9330001
	0.633744 0.441908 3.9330001
	0.633744 0.55152857 3.9330001
	0.633744 0.57893372 3.9330001
	0.633744 0.60633886 3.9330001
	0.63523078 0.84103769 2.2720001
	0.63547647 -0.48468542 4.1220002
	0.63547647 -0.54212964 4.1220002
	0.63547647 -0.59957379 4.1220002
	0.63547647 -0.6282959 4.1220002
	0.63547647 -0.65701801 4.1220002
	0.63547647 -0.74318433 4.1220002
	0.63547647 -0.77190644 4.1220002
	0.63547647 -0.80062854 4.1220002
	0.63547647 -0.88679481 4.1220002
	0.63547647 -0.91551697 4.1220002
	0.63547647 -0.94423902 4.1220002
	0.63547647 -0.97296107 4.1220002
